ply
format ascii 1.0
element vertex 721
property float x
property float y
property float z
property float nx
property float ny
property float nz
property uchar diffuse_red
property uchar diffuse_green
property uchar diffuse_blue
end_header
-0.696592 0.320977 -4.58687 0.375177 -0.760492 0.529995 242 181 193
-0.640888 0.327242 -4.56481 -0.0275121 -0.604015 0.796498 244 194 203
-0.616581 0.340763 -4.55806 0.549498 -0.403314 0.731703 239 194 210
-0.593058 0.341385 -4.56329 0.245926 -0.053116 0.967832 237 201 215
-0.495314 0.338393 -4.53329 -0.193483 -0.0866932 0.977266 230 165 178
-0.472792 0.33829 -4.52349 0.0847687 0.0854938 0.992726 208 141 156
-0.436447 0.358413 -4.52492 -0.0688538 0.258753 0.963486 207 143 158
-0.413006 0.35851 -4.5321 0.120892 -0.0713864 0.990095 213 154 168
-0.390599 0.350791 -4.50922 -0.224077 0.605166 0.763914 217 161 174
-0.366796 0.359856 -4.51199 0.247818 0.540504 0.804016 223 167 180
-0.341268 0.36037 -4.51283 0.242966 0.465699 0.850936 230 177 190
-0.315568 0.366197 -4.51691 0.430641 0.582206 0.689626 220 170 182
-0.284351 0.364071 -4.53706 0.457975 0.320659 0.829118 178 121 131
-0.259593 0.364066 -4.55054 0.615574 0.174942 0.768417 208 147 159
-0.160223 0.37915 -4.617 0.572194 0.0729998 0.816863 209 155 169
0.0491699 0.413734 -5.33897 -0.298791 0.0666655 0.951987 238 221 230
0.0822739 0.408702 -5.33756 -0.614133 -0.41801 0.669408 242 228 235
0.109492 0.422384 -5.36172 -0.359656 -0.229185 0.904501 235 191 202
0.142186 0.420522 -5.33302 -0.612084 -0.530696 0.586272 225 77 113
0.172891 0.418827 -5.30876 -0.587478 -0.446663 0.674805 239 174 193
0.205299 0.414802 -5.28246 -0.652563 -0.510818 0.559667 240 226 237
0.230628 0.421271 -5.26016 -0.596281 0.241613 0.765553 239 231 239
0.261725 0.426971 -5.23963 0.104118 -0.295062 0.949788 215 187 200
0.289316 0.427396 -5.23814 0.0902149 -0.0700966 0.993452 189 146 166
0.346607 0.439958 -5.23742 0.110097 0.0448616 0.992908 204 158 178
0.375942 0.440068 -5.24184 0.212874 0.173811 0.961496 188 121 143
0.425488 0.456928 -5.27402 0.424535 0.113143 0.898314 113 34 49
0.45874 0.456215 -5.29289 0.11135 0.398119 0.910551 95 10 17
0.490649 0.455984 -5.30158 0.317159 0.701558 0.638143 97 7 13
0.561488 0.468624 -5.31441 0.0849703 0.808209 0.582733 98 6 11
0.561545 0.473384 -5.35076 -0.0917417 0.793106 0.602135 99 5 10
0.623296 0.462159 -5.28854 -0.109354 0.826519 0.552185 131 17 28
0.658619 0.480833 -5.29623 -0.125286 0.823365 0.55351 122 10 15
0.692328 0.471927 -5.26583 -0.205609 0.790579 0.57681 163 27 42
0.705897 0.466672 -5.25473 -0.020338 0.578131 0.815691 178 44 66
0.734102 0.467284 -5.25127 -0.0242686 0.33932 0.940358 188 72 94
0.733367 0.481055 -5.25498 -0.0993558 0.592139 0.799687 165 29 46
0.745948 0.491673 -5.24921 -0.0725502 0.401174 0.913124 149 18 32
0.775715 0.49315 -5.24268 0.176635 0.0878199 0.980351 152 24 39
0.81878 0.497123 -5.27952 0.502383 0.284965 0.816337 152 30 47
0.853745 0.493251 -5.29637 0.508213 0.168892 0.844509 172 93 106
0.948446 0.511815 -5.3496 0.186991 0.508665 0.840413 218 194 205
1.00845 0.506424 -5.36271 0.0211497 -0.416674 0.90881 218 185 198
1.03627 0.50566 -5.35125 -0.236738 0.0105273 0.971516 205 141 158
1.05642 0.513513 -5.34648 -0.0979807 0.342047 0.93456 192 82 103
1.22878 0.525705 -5.58601 0.545913 -0.360116 0.756502 181 29 39
1.2649 0.525358 -5.58837 0.547324 0.258746 0.795919 186 30 41
1.28729 0.531629 -5.59914 0.523882 0.313729 0.79191 185 30 40
1.36624 0.545982 -5.66353 0.502455 -0.432903 0.748421 167 26 34
1.40288 0.545511 -5.66388 -0.0605964 -0.383197 0.921677 158 21 29
1.43188 0.543492 -5.6369 -0.744612 -0.315549 0.588203 196 34 52
1.78271 0.591168 -6.14938 -0.967159 0.0318887 0.252166 171 103 101
1.80953 0.585944 -6.11082 -0.627617 -0.411636 0.660797 183 120 121
1.80352 0.611085 -6.03573 -0.796659 -0.346297 0.495392 195 134 137
1.84561 0.593553 -6.05495 -0.457236 -0.229979 0.859095 164 107 103
1.88251 0.600328 -6.04133 -0.371815 -0.60671 0.702607 167 123 91
1.93643 0.606534 -6.07099 -0.341014 -0.73928 0.580667 163 122 67
1.99681 0.605363 -5.97666 -0.879022 -0.428455 0.209156 209 167 58
2.01122 0.603467 -5.96203 -0.789959 -0.568055 0.230819 215 174 59
2.08812 0.633213 -5.86458 -0.415549 -0.829596 0.372948 223 167 68
2.11273 0.621945 -5.82381 -0.772491 -0.452572 0.445462 229 177 61
2.11223 0.626475 -5.82077 -0.709939 -0.498072 0.497907 229 175 65
2.14299 0.632734 -5.7451 -0.93731 -0.0806349 0.339041 228 174 72
2.16495 0.633415 -5.67101 -0.932433 0.16206 0.322962 227 174 71
2.18781 0.628667 -5.59899 -0.974058 0.0815495 0.211096 228 174 64
2.18189 0.631143 -5.56726 -0.810792 0.51912 0.270425 228 174 67
2.20957 0.621387 -5.52834 -0.948174 0.260262 0.182291 228 181 84
2.23432 0.631297 -5.46716 -0.903713 0.344932 0.253622 222 173 77
-1.01781 0.270625 -4.72091 0.722834 -0.30728 0.618942 114 90 102
-1.01874 0.277235 -4.67957 0.874026 -0.221185 0.432614 116 93 104
-0.917142 0.275724 -4.68332 0.0986822 -0.782181 0.615187 239 181 190
-0.880564 0.289826 -4.6589 -0.246106 -0.597006 0.763555 242 177 189
-0.855981 0.296117 -4.65992 -0.362477 -0.620226 0.695651 241 176 187
-0.792792 0.299886 -4.63618 -0.0860141 -0.754437 0.650712 236 175 186
-0.759506 0.287169 -4.63145 -0.32766 -0.715797 0.616663 239 183 196
-0.738484 0.289395 -4.60641 -0.589287 -0.47616 0.652697 241 187 200
-0.682782 0.308593 -4.56395 -0.603513 -0.432969 0.669559 240 177 189
-0.612861 0.302578 -4.55763 -0.105997 -0.00438903 0.994357 230 170 183
-0.61284 0.314515 -4.56331 0.311379 0.188804 0.931341 229 170 183
-0.579349 0.32043 -4.55586 -0.106102 0.217635 0.970246 225 162 177
-0.54866 0.32197 -4.54644 -0.315242 0.23664 0.919034 237 175 187
-0.524221 0.322061 -4.54577 -0.617476 0.284752 0.733239 238 176 187
-0.507756 0.316532 -4.53074 -0.359661 0.0437211 0.932058 218 152 166
-0.479323 0.32014 -4.52252 -0.191528 0.393299 0.89924 209 146 161
-0.451351 0.318624 -4.49663 -0.430018 0.633447 0.643296 215 156 171
-0.41361 0.336698 -4.50809 -0.14116 0.496345 0.856572 217 160 174
-0.427657 0.318627 -4.49838 0.0700012 0.178356 0.981473 223 165 178
-0.389908 0.329256 -4.49929 -0.0674842 0.223254 0.972421 226 170 185
-0.367253 0.335514 -4.5101 0.3523 0.553991 0.754307 229 173 187
-0.351232 0.339548 -4.50654 0.588937 0.567534 0.575377 234 181 194
-0.31576 0.340683 -4.5054 0.594745 -0.0434549 0.802739 235 189 200
-0.290349 0.345689 -4.5201 0.086493 0.283638 0.955023 200 146 157
-0.268686 0.340773 -4.53291 0.442393 0.261498 0.857851 192 132 144
-0.226562 0.354622 -4.56998 0.630955 0.0393911 0.774819 219 155 168
-0.175429 0.355774 -4.61183 0.708598 0.0653517 0.702579 203 143 155
0.012936 0.368321 -5.33348 -0.798147 -0.156402 0.581807 195 127 142
0.0527283 0.374688 -5.33574 -0.00692142 -0.208777 0.977939 237 224 233
0.126686 0.395298 -5.34205 -0.571745 -0.395898 0.718591 225 87 119
0.166313 0.388899 -5.33748 -0.677457 -0.52034 0.519903 228 55 93
0.241289 0.396693 -5.25047 -0.415429 0.238858 0.877705 242 234 242
0.274019 0.403507 -5.24552 -0.279224 0.212336 0.936455 239 229 237
0.302218 0.40316 -5.23878 -0.0508555 0.158385 0.986067 233 218 227
0.332989 0.41544 -5.23705 0.0317668 0.251734 0.967275 195 142 163
0.377267 0.410541 -5.23138 0.076854 0.488075 0.869411 204 150 169
0.407146 0.422704 -5.24036 0.145291 0.576055 0.804395 168 71 96
0.440813 0.432622 -5.25447 0.231411 0.654699 0.719596 145 36 56
0.472246 0.43247 -5.26115 0.163073 0.664713 0.729085 150 37 56
0.499326 0.425317 -5.2634 -0.0693381 0.845515 0.529431 189 72 99
0.545409 0.44239 -5.30973 -0.137487 0.847266 0.513067 147 26 43
0.58478 0.435084 -5.27331 -0.139396 0.847964 0.511395 176 55 80
0.62466 0.436301 -5.24463 -0.175864 0.592368 0.786239 184 103 124
0.65729 0.453306 -5.25866 -0.179362 0.76163 0.622695 161 43 65
0.688553 0.442594 -5.24539 -0.144634 0.458805 0.876686 194 132 151
0.721842 0.442865 -5.24734 0.0358311 0.481237 0.875858 212 172 188
0.765101 0.467337 -5.25168 0.133131 0.0498388 0.989845 190 107 126
0.795173 0.46731 -5.25515 0.26599 -0.0236036 0.963687 196 143 156
0.831631 0.467846 -5.27619 0.508063 0.114917 0.853619 201 162 173
0.89519 0.469759 -5.30747 0.363836 0.188962 0.912095 223 199 206
0.916039 0.482618 -5.33037 -0.0464074 0.452751 0.890428 227 202 211
0.949375 0.480643 -5.33669 0.331259 0.36201 0.87133 208 144 160
0.98463 0.480236 -5.34486 0.434943 0.0928246 0.895661 211 142 160
1.01228 0.485876 -5.34884 -0.222 -0.263186 0.938855 208 137 154
1.04941 0.480799 -5.34588 -0.516452 -0.0854121 0.852046 204 82 107
1.18767 0.494026 -5.53933 0.482424 0.0327695 0.875325 200 32 53
1.11922 0.500443 -5.3773 0.587381 0.141759 0.796799 189 28 45
1.2262 0.492129 -5.56003 0.202215 -0.411096 0.888881 193 32 50
1.23929 0.492229 -5.56923 0.439225 -0.0454677 0.897226 190 32 49
1.34443 0.52383 -5.64098 0.513668 -0.406383 0.755644 171 27 36
1.41704 0.522964 -5.67995 0.460098 -0.261174 0.848586 170 27 37
1.79644 0.555168 -6.11994 -0.958686 0.121354 0.257281 163 98 98
1.83832 0.581323 -6.07949 -0.794096 -0.306509 0.524846 171 108 110
1.93354 0.564088 -6.1062 -0.170289 -0.352708 0.920108 149 106 60
1.92691 0.575462 -6.07368 -0.537988 -0.530273 0.65527 155 117 70
1.97462 0.580442 -6.07827 -0.691568 -0.653723 0.307212 190 148 79
1.99114 0.569736 -6.01478 -0.880196 -0.215301 0.422967 195 150 75
1.98109 0.588115 -6.0078 -0.896072 -0.395395 0.201785 196 151 57
2.05815 0.586741 -5.93898 -0.764004 -0.555028 0.329002 220 180 59
2.04274 0.587273 -5.95461 -0.732793 -0.616155 0.288735 218 177 60
2.06566 0.604295 -5.91219 -0.796575 -0.537541 0.27662 222 181 59
2.10201 0.586839 -5.85448 -0.962668 -0.212 0.168302 229 192 59
2.13278 0.604646 -5.78361 -0.929201 -0.183385 0.320866 230 189 61
2.19446 0.603054 -5.55608 -0.970716 0.171962 0.167751 228 193 90
-0.998687 0.253389 -4.6934 0.862507 -0.0476757 0.503795 113 80 97
-0.95788 0.251632 -4.75951 0.279893 -0.424712 0.860976 232 183 194
-0.882589 0.258456 -4.71249 0.574089 -0.470987 0.669772 241 177 189
-0.82597 0.269142 -4.68759 -0.406865 -0.645587 0.646281 241 177 188
-0.791255 0.274213 -4.6666 0.0405997 -0.750055 0.660128 239 179 189
-0.723943 0.280169 -4.61211 -0.619714 -0.385859 0.683423 231 174 188
-0.689807 0.275196 -4.57444 -0.569377 -0.450999 0.687321 233 174 185
-0.577001 0.300008 -4.5506 -0.429832 -0.0725758 0.899987 243 183 195
-0.54095 0.300911 -4.54059 -0.448735 0.38287 0.807495 232 169 181
-0.517795 0.300935 -4.53154 -0.447639 0.423343 0.787655 212 147 162
-0.494148 0.300155 -4.5169 -0.32763 0.387829 0.861538 208 147 161
-0.439215 0.298367 -4.49369 -0.0896639 0.359457 0.928844 231 174 188
-0.40315 0.312019 -4.48773 0.116308 0.292171 0.949267 233 178 191
-0.378912 0.312179 -4.48568 -0.0371092 0.464248 0.884928 236 183 197
-0.35215 0.312401 -4.49719 0.454371 0.518586 0.724303 238 188 201
-0.367022 0.312157 -4.48558 -0.0268272 0.37809 0.92538 238 187 200
-0.3179 0.311538 -4.50609 0.69298 -0.163406 0.702195 233 184 197
-0.277702 0.324759 -4.52212 0.217458 -0.0123986 0.975991 189 133 143
-0.234223 0.327221 -4.5493 0.605461 0.313479 0.731538 216 152 164
-0.232678 0.327055 -4.55738 0.639255 0.439914 0.630737 216 152 165
-0.208475 0.326777 -4.56233 0.718039 0.314674 0.620806 218 154 166
-0.150063 0.346502 -4.63303 0.663888 -0.178676 0.726173 191 135 150
0.0128155 0.339456 -5.3584 -0.350693 -0.630457 0.692487 168 104 121
0.0548118 0.345018 -5.33449 -0.776255 -0.354619 0.521223 240 230 238
0.0452134 0.346026 -5.33541 -0.429298 -0.473925 0.768829 238 227 235
0.116687 0.366995 -5.34768 0.152978 -0.28369 0.946635 215 128 147
0.146011 0.366763 -5.35595 0.201392 -0.452449 0.868753 221 53 88
0.201936 0.381727 -5.30889 -0.519774 -0.693071 0.499488 211 68 101
0.231371 0.371227 -5.27279 -0.580948 -0.65019 0.489646 214 96 127
0.260023 0.370351 -5.24123 -0.41458 -0.360235 0.835676 228 168 188
0.287972 0.379419 -5.23449 -0.025422 0.228856 0.973128 242 231 239
0.315866 0.379197 -5.23068 0.0395867 0.228044 0.972846 240 232 240
0.356272 0.374517 -5.22435 -0.14089 0.0932515 0.985624 242 235 242
0.347692 0.391389 -5.23313 -0.112074 0.21466 0.970237 237 226 236
0.408513 0.393119 -5.22969 -0.0461332 0.277229 0.959696 236 223 233
0.442401 0.401727 -5.2381 -0.122163 0.625321 0.770746 226 201 213
0.482216 0.388503 -5.22236 0.0627697 -0.0993949 0.993066 237 229 237
0.543943 0.41626 -5.26019 -0.15244 0.826176 0.542398 209 144 163
0.564712 0.403109 -5.22609 -0.00214593 0.165489 0.986209 230 214 226
0.612326 0.401152 -5.22509 0.15162 -0.309847 0.938619 235 223 233
0.63143 0.426114 -5.24658 -0.154345 0.685809 0.711227 210 164 180
0.660107 0.426048 -5.24442 -0.151216 0.631681 0.760337 215 180 195
0.687461 0.425527 -5.2371 0.0341363 0.458018 0.888287 224 204 218
0.702272 0.418528 -5.23145 0.0740433 0.195767 0.977851 228 213 226
0.740854 0.434415 -5.23794 0.190153 0.508414 0.839855 223 203 216
0.779627 0.440817 -5.25016 0.148138 0.386566 0.910287 219 195 209
0.809471 0.438383 -5.25595 0.263954 0.353723 0.897334 220 195 208
0.813462 0.440935 -5.2586 0.28572 0.392632 0.874188 217 192 205
0.846468 0.438698 -5.2744 0.484491 0.424115 0.765111 211 169 180
0.879523 0.438203 -5.2851 0.369086 0.309395 0.876385 216 149 164
0.937243 0.450185 -5.32958 0.426214 0.0141803 0.904511 202 80 109
0.978138 0.452213 -5.37373 0.62593 -0.0651098 0.777157 197 49 78
1.0017 0.46211 -5.36728 0.27268 0.0863589 0.958221 207 97 118
1.032 0.463111 -5.37282 -0.292022 -0.28964 0.9115 203 75 100
1.12796 0.456758 -5.51455 0.328163 -0.687334 0.647982 177 39 59
1.26879 0.492487 -5.5853 0.47323 0.0826841 0.87705 179 30 43
1.31045 0.492671 -5.61083 0.521576 0.100557 0.847258 165 27 36
1.34958 0.475417 -5.63178 0.541298 0.113836 0.83309 136 16 22
1.43219 0.481699 -5.69798 0.428016 -0.304811 0.850819 181 32 44
1.44884 0.507483 -5.64312 -0.737142 -0.150838 0.658687 202 38 57
1.85337 0.545342 -6.10826 -0.938947 -0.260262 0.225038 146 82 83
1.92561 0.534113 -6.13787 0.0725196 -0.092358 0.993082 131 75 56
1.97891 0.536661 -6.06987 -0.896184 0.0489519 0.440974 169 124 68
2.0056 0.568246 -5.99078 -0.667644 0.0509425 0.742736 206 160 78
2.02567 0.546521 -5.97697 -0.717931 0.00272232 0.696109 209 172 105
2.04306 0.550481 -5.95153 -0.69036 -0.0383377 0.722449 214 171 90
2.05586 0.569107 -5.91349 -0.71496 -0.607499 0.34609 219 171 58
2.08949 0.562124 -5.89506 -0.819937 0.124689 0.558708 226 178 65
2.12642 0.559826 -5.82382 -0.966954 -0.195524 0.163616 229 183 59
2.1511 0.578033 -5.74598 -0.97691 -0.147469 0.154595 228 193 59
2.18062 0.575208 -5.66068 -0.934633 -0.324545 0.145366 228 193 57
2.1813 0.578578 -5.59302 -0.979576 -0.0503466 0.194669 228 194 65
2.20267 0.584369 -5.51071 -0.943191 0.228174 0.241509 227 193 113
2.22404 0.587396 -5.42169 -0.974522 -0.191094 0.117433 223 167 67
-1.01055 0.238306 -4.62983 0.901735 -0.0240009 0.431623 109 90 100
-0.988969 0.234005 -4.76884 0.287456 -0.789105 0.542846 128 96 114
-0.958439 0.22995 -4.7831 0.312508 -0.710551 0.630441 228 182 195
-0.92936 0.24196 -4.75887 0.143956 -0.636095 0.758064 237 183 195
-0.895139 0.228888 -4.74707 0.0158967 -0.600326 0.799597 239 181 191
-0.823951 0.241934 -4.70654 -0.154213 -0.688767 0.708392 242 182 192
-0.759477 0.263242 -4.65541 -0.701731 -0.146437 0.69723 234 176 190
-0.729811 0.247664 -4.61918 -0.613513 -0.428978 0.663008 228 174 188
-0.655588 0.2742 -4.56133 -0.259701 -0.626166 0.735168 227 168 181
-0.63514 0.267522 -4.55937 -0.461309 -0.638341 0.616209 232 171 184
-0.608855 0.270421 -4.55803 0.196029 -0.565213 0.801316 239 179 191
-0.584438 0.2704 -4.55287 -0.60661 0.141595 0.782289 240 180 191
-0.562526 0.280831 -4.54409 -0.412699 0.0643851 0.908589 230 166 178
-0.531697 0.280271 -4.52625 -0.465771 0.479307 0.743856 214 152 166
-0.507934 0.280271 -4.51795 -0.278436 0.289322 0.915842 218 160 175
-0.484391 0.280271 -4.51018 -0.276922 0.364301 0.889156 228 171 183
-0.458955 0.280275 -4.52413 0.05777 -0.34691 0.936118 233 175 187
-0.431673 0.279666 -4.50499 -0.235718 0.00925334 0.971777 238 183 196
-0.4147 0.298183 -4.49094 0.0711662 0.42188 0.903854 235 180 193
-0.415447 0.298402 -4.49222 0.071685 0.411766 0.908466 235 180 192
-0.404533 0.279594 -4.49507 0.19368 0.334613 0.922238 241 190 201
-0.323006 0.290552 -4.50198 -0.0136617 0.00830944 0.999872 235 186 198
-0.28902 0.304808 -4.51931 0.381129 -0.0930619 0.919826 222 173 186
-0.266463 0.304996 -4.52233 0.198396 -0.0318567 0.979604 181 124 136
-0.243903 0.304049 -4.537 0.466983 0.172257 0.867326 208 147 158
-0.220126 0.303436 -4.55818 0.466411 0.0138954 0.884459 224 161 172
-0.221039 0.304357 -4.55712 0.47669 -0.017521 0.878897 223 161 172
-0.196574 0.304256 -4.56185 0.706943 0.251997 0.660855 220 157 169
-0.154827 0.318453 -4.61482 0.547801 -0.0815662 0.832623 201 142 155
0.0705466 0.321171 -5.34635 -0.0433899 -0.423511 0.904851 243 235 241
0.0998029 0.343792 -5.33494 0.657916 0.0809618 0.748726 216 169 180
0.23436 0.35353 -5.3296 -0.423184 -0.746499 0.513473 211 44 72
0.259966 0.344606 -5.30364 -0.409998 -0.752785 0.514992 220 49 81
0.250005 0.346817 -5.30622 -0.581286 -0.649054 0.490749 216 46 76
0.287918 0.351214 -5.24319 -0.311748 -0.550517 0.774432 215 97 129
0.315805 0.351058 -5.23402 -0.194264 -0.294712 0.935631 219 125 154
0.343176 0.351003 -5.22784 -0.175218 -0.219846 0.95967 224 144 169
0.370984 0.350983 -5.22376 -0.124178 -0.292106 0.94829 223 147 171
0.443101 0.374295 -5.22098 -0.0142436 0.449468 0.893183 241 233 241
0.494517 0.36496 -5.21544 -0.0598497 0.213258 0.975161 236 212 225
0.510707 0.388334 -5.22684 -0.0166187 0.210218 0.977513 236 226 235
0.539022 0.388316 -5.22666 -0.0878612 0.524109 0.847107 235 224 234
0.522399 0.364919 -5.21289 -0.0928029 0.0924233 0.991386 229 183 201
0.566449 0.375871 -5.21484 -0.0879395 0.481888 0.871809 230 199 214
0.598072 0.376236 -5.21871 0.0758909 0.251758 0.96481 229 189 206
0.627825 0.376254 -5.22141 0.0496907 0.0796199 0.995586 225 166 187
0.642431 0.401257 -5.22883 -0.00808781 0.25517 0.966862 233 221 231
0.670645 0.401169 -5.22552 -0.0627499 0.268402 0.961261 233 217 229
0.700313 0.401235 -5.22593 0.0499729 0.274454 0.960301 228 195 210
0.731084 0.401529 -5.23262 0.0996733 0.261588 0.960019 217 148 171
0.762239 0.401683 -5.23849 0.165232 0.135391 0.976917 210 101 129
0.793599 0.401923 -5.2479 0.275393 -0.0484566 0.96011 205 65 93
0.825295 0.401735 -5.25382 0.319215 0.196597 0.927066 203 43 68
0.837085 0.403505 -5.25148 0.438846 0.480161 0.759513 202 40 65
0.858292 0.4017 -5.2646 0.507537 0.451083 0.734119 201 36 60
0.87311 0.403277 -5.26916 0.47591 0.496565 0.725901 199 34 58
0.91751 0.415628 -5.30405 0.284095 0.342504 0.895534 193 34 56
0.953264 0.415958 -5.32605 0.508358 0.429309 0.746503 192 31 50
1.02241 0.432862 -5.38816 0.461561 0.491236 0.73868 185 37 58
1.12329 0.421755 -5.57671 0.363552 -0.544448 0.755914 175 26 37
1.18235 0.453217 -5.57619 0.510909 -0.441874 0.737373 154 29 42
1.21856 0.456958 -5.56088 0.370263 -0.0559094 0.927243 145 22 31
1.25564 0.456751 -5.57315 0.3938 0.265809 0.879924 140 18 25
1.34345 0.446649 -5.66456 0.522963 -0.376303 0.764791 164 26 33
1.46841 0.479447 -5.68716 0.402736 0.137266 0.904965 184 33 45
1.49935 0.458689 -5.7183 0.567989 0.0470184 0.821692 178 32 41
1.53691 0.488065 -5.73284 0.0761957 -0.615958 0.784086 173 33 40
1.98177 0.503316 -6.09339 -0.920134 0.131369 0.368913 159 101 33
1.99945 0.515262 -6.04574 -0.541408 0.0728827 0.837595 179 130 60
2.01546 0.532749 -6.01402 -0.514832 -0.0212504 0.857028 203 166 100
2.01475 0.528862 -6.02214 -0.418442 -0.285472 0.862213 200 161 96
2.0419 0.51024 -6.00668 -0.766725 -0.147321 0.624843 211 172 100
2.06651 0.515695 -5.98993 -0.949502 0.128632 0.28618 217 184 116
2.07865 0.534516 -5.95025 -0.87614 -0.271779 0.398139 222 187 111
2.09831 0.515873 -5.90508 -0.933982 -0.0703419 0.350328 224 193 123
2.0998 0.520512 -5.91023 -0.925849 -0.212344 0.312593 225 192 120
2.11258 0.541885 -5.86826 -0.900275 -0.109406 0.421349 227 175 73
2.12931 0.520268 -5.82381 -0.950627 -0.0643311 0.303596 227 185 96
2.14179 0.546573 -5.7846 -0.97205 -0.144425 0.185094 228 176 59
2.16927 0.543251 -5.69783 -0.959461 -0.211199 0.186628 228 176 60
2.17546 0.543777 -5.58279 -0.911209 -0.384742 0.147211 223 168 56
2.20271 0.54172 -5.53764 -0.988765 0.0397408 0.144097 229 171 60
2.22454 0.558481 -5.47817 -0.983477 -0.132072 0.123818 229 171 59
-1.03233 0.194916 -4.84911 -0.542624 -0.478174 0.690585 106 91 104
-0.998452 0.205118 -4.79556 0.180653 -0.802924 0.568048 111 85 102
-0.958128 0.205288 -4.81255 0.134199 -0.805834 0.576734 213 167 183
-0.925052 0.215952 -4.76369 -0.28623 0.0793655 0.954868 238 189 201
-0.856732 0.229894 -4.71759 0.0125125 -0.805076 0.593039 240 175 187
-0.822882 0.21615 -4.73248 -0.0354793 -0.75721 0.652207 244 193 204
-0.789552 0.228136 -4.71955 0.0292564 -0.734395 0.678091 234 184 194
-0.750632 0.221613 -4.63954 -0.709562 -0.0719492 0.70096 231 177 190
-0.68598 0.23924 -4.58118 -0.593047 -0.473132 0.651491 223 162 175
-0.647085 0.246887 -4.55925 0.289089 -0.395027 0.871998 236 174 187
-0.623364 0.246894 -4.5606 0.0918341 -0.0401302 0.994965 240 181 191
-0.598909 0.246797 -4.55752 -0.487546 0.206315 0.848371 223 160 173
-0.5682 0.246942 -4.53668 -0.540798 0.328043 0.774548 215 150 165
-0.523063 0.260372 -4.50939 -0.59689 0.414369 0.687037 226 167 179
-0.497909 0.260313 -4.51542 -0.19747 0.190958 0.961531 231 172 184
-0.472888 0.260358 -4.51423 -0.277951 -0.140543 0.950258 236 177 189
-0.450072 0.260469 -4.49476 -0.250407 0.110428 0.961822 239 182 195
-0.391536 0.261951 -4.48498 0.571406 -0.213199 0.792491 242 190 201
-0.365265 0.265477 -4.48596 0.281323 -0.0663632 0.957316 242 192 204
-0.301154 0.283621 -4.5158 0.663117 -0.201505 0.720882 233 186 197
-0.278396 0.283565 -4.52579 -0.263084 -0.173937 0.948964 223 175 186
-0.230061 0.280981 -4.53962 0.400548 -0.0135056 0.916176 222 160 171
-0.207884 0.281263 -4.55755 0.178667 -0.101064 0.978705 221 159 169
0.30376 0.329578 -5.2955 -0.291669 -0.795899 0.530541 223 46 78
0.330965 0.328993 -5.27234 -0.247135 -0.807337 0.535846 223 47 80
0.3585 0.328753 -5.2571 -0.320906 -0.71185 0.624731 222 47 81
0.385867 0.328257 -5.23935 0.0334214 -0.650528 0.758747 221 47 80
0.39894 0.350909 -5.21983 -0.0789903 -0.314546 0.94595 223 148 173
0.427791 0.35082 -5.21743 -0.0157041 -0.359405 0.933049 220 145 171
0.458675 0.350815 -5.21683 0.013957 -0.40913 0.912369 220 148 172
0.509141 0.342079 -5.22737 0.0563038 -0.617454 0.78459 213 55 87
0.537007 0.342278 -5.22966 0.0680353 -0.612575 0.787479 215 48 83
0.583391 0.353937 -5.23845 0.216822 -0.546339 0.809013 211 58 91
0.656472 0.376275 -5.22324 0.0196476 0.0776717 0.996785 218 130 157
0.643584 0.35164 -5.22477 0.0389925 0.0625481 0.99728 220 46 79
0.671826 0.352263 -5.23363 0.00857121 -0.263702 0.964566 219 43 73
0.684952 0.37629 -5.22409 0.0742866 0.135405 0.988002 215 87 118
0.68615 0.376341 -5.22416 0.0733945 0.136572 0.987908 215 85 117
0.686215 0.376523 -5.22406 0.0692404 0.144188 0.987125 215 86 117
0.716692 0.376475 -5.22832 0.189965 0.0740039 0.978998 212 48 81
0.715175 0.377633 -5.2253 0.122342 0.259415 0.957985 212 51 84
0.747638 0.376667 -5.23795 0.249648 -0.100967 0.963058 213 41 71
0.74856 0.376231 -5.2395 0.271957 -0.162368 0.948513 213 41 71
0.779371 0.376783 -5.24834 0.287515 -0.157815 0.944685 211 37 65
0.810546 0.376217 -5.24728 0.276199 0.132956 0.95186 208 35 59
0.902737 0.385691 -5.28355 0.483574 0.482962 0.730002 204 34 53
0.936333 0.385278 -5.28681 0.376154 0.610942 0.696605 204 34 53
1.17358 0.396495 -5.58972 0.0493221 -0.749524 0.660137 188 29 41
1.18088 0.423534 -5.59396 0.393629 -0.612998 0.685047 175 25 35
1.20396 0.422183 -5.56708 0.345513 -0.352731 0.869599 179 27 40
1.28508 0.411997 -5.58047 0.532078 0.31041 0.787743 182 30 40
1.34198 0.413056 -5.63649 0.585833 0.0461546 0.809116 157 23 29
1.37556 0.414769 -5.6569 0.372459 0.00228402 0.928046 151 18 24
1.39822 0.444678 -5.68493 0.268714 -0.4838 0.832904 152 19 25
1.62669 0.462036 -5.92485 0.521954 -0.31953 0.790863 171 43 44
1.93377 0.462701 -6.07107 0.162018 0.719482 0.675349 138 85 55
1.97066 0.494265 -6.10386 -0.929043 0.0904531 0.358743 160 104 44
2.02828 0.499267 -6.03491 -0.478104 -0.388592 0.787663 202 149 70
2.07904 0.489254 -5.95424 -0.937437 0.0707192 0.340896 221 185 112
2.08489 0.487254 -5.93575 -0.958607 -0.174802 0.224758 222 188 117
2.12111 0.486639 -5.86155 -0.921867 0.112826 0.370718 224 195 126
2.13433 0.50672 -5.81371 -0.957826 -0.0611493 0.280767 227 194 118
2.15917 0.519618 -5.74442 -0.944 -0.0246432 0.329023 227 174 74
2.16176 0.501468 -5.73226 -0.931651 -0.0775024 0.354994 227 188 104
2.19079 0.496104 -5.65336 -0.937499 -0.110183 0.330085 228 179 83
2.18763 0.500023 -5.65901 -0.945418 -0.00348947 0.325842 228 177 78
2.18958 0.516646 -5.6545 -0.913229 -0.301167 0.274427 229 171 61
2.17969 0.521693 -5.58738 -0.90971 -0.386935 0.150694 224 164 55
2.18308 0.520206 -5.58435 -0.909388 -0.387655 0.150789 224 163 55
2.2194 0.502697 -5.57764 -0.911791 -0.206844 0.354757 229 171 61
2.22208 0.527114 -5.52564 -0.964556 -0.219373 0.146655 229 170 57
-1.05339 0.18369 -4.84522 -0.523691 -0.346388 0.778308 112 96 109
-0.995839 0.194713 -4.8219 -0.261382 -0.489325 0.83201 145 111 129
-0.946575 0.180557 -4.80496 -0.397886 0.036792 0.916697 225 169 184
-0.880458 0.191036 -4.76083 -0.174328 -0.588768 0.78928 240 182 193
-0.851255 0.191078 -4.76064 -0.108979 -0.459471 0.881482 237 175 186
-0.823175 0.19102 -4.75317 0.0725304 -0.6135 0.786357 244 193 203
-0.796812 0.204896 -4.74941 0.0213498 -0.732983 0.679912 235 185 197
-0.773197 0.198799 -4.66891 -0.748808 -0.189716 0.635054 237 190 201
-0.724024 0.204082 -4.60428 -0.708888 -0.108092 0.696989 227 172 185
-0.699659 0.215197 -4.58172 -0.487567 -0.061859 0.870892 232 178 191
-0.673957 0.215341 -4.5631 -0.376895 0.0805214 0.922749 231 171 183
-0.649604 0.216371 -4.55865 0.188094 0.0937503 0.977666 223 159 172
-0.609341 0.218266 -4.55671 -0.444993 0.237312 0.863518 207 143 158
-0.613481 0.22321 -4.55948 -0.338755 0.316457 0.886059 206 140 156
-0.585442 0.225717 -4.54305 -0.620817 0.226316 0.750578 217 153 166
-0.562964 0.224852 -4.52346 -0.501989 0.415614 0.758467 229 168 181
-0.539231 0.236171 -4.5197 -0.515429 0.0712273 0.853967 227 166 179
-0.51174 0.239174 -4.50174 -0.670601 -0.374303 0.640463 232 173 186
-0.487148 0.239148 -4.49909 -0.091501 -0.18327 0.978795 240 184 196
-0.463243 0.238475 -4.49328 -0.0495023 -0.183244 0.98182 243 189 200
-0.43816 0.238427 -4.49098 0.0301453 -0.208211 0.977619 244 190 202
-0.426002 0.235254 -4.48446 -0.0784975 -0.0604074 0.995082 245 193 204
-0.415476 0.255978 -4.48893 -0.0017582 -0.111759 0.993734 243 190 203
-0.377077 0.241432 -4.49437 0.496824 -0.00447116 0.86784 243 193 205
-0.335648 0.263476 -4.49244 0.696147 -0.154873 0.700995 240 192 205
-0.307165 0.26048 -4.49488 0.722527 -0.357441 0.59177 237 189 201
-0.290278 0.262066 -4.53746 -0.315843 -0.131609 0.93964 236 190 203
-0.26602 0.262117 -4.53228 -0.617607 -0.126832 0.776193 217 167 177
0.00973724 0.280992 -5.41228 -0.333923 -0.321542 0.886062 185 138 156
0.0587375 0.285158 -5.36721 -0.708334 -0.47965 0.517879 238 228 238
0.0762827 0.266231 -5.37 -0.701702 -0.490786 0.516472 233 212 224
0.0888574 0.292667 -5.34945 -0.481461 -0.240797 0.842741 244 238 243
0.103226 0.269811 -5.35764 -0.369923 0.10744 0.922829 244 237 244
0.130819 0.2708 -5.35162 0.192801 0.0891854 0.977176 238 221 230
0.278878 0.310076 -5.39245 -0.298001 -0.791695 0.533305 203 35 56
0.320485 0.291138 -5.41765 -0.161822 -0.818181 0.551718 212 38 63
0.354317 0.299837 -5.32009 -0.607113 -0.632125 0.481489 224 42 71
0.387879 0.303574 -5.33844 0.253738 -0.760343 0.59791 224 42 72
0.418411 0.316861 -5.29347 0.183149 -0.78522 0.591512 221 43 75
0.442849 0.327926 -5.23766 -0.114149 -0.652665 0.748998 220 45 79
0.474217 0.327849 -5.2439 -0.127287 -0.65399 0.745718 220 45 77
0.508979 0.314061 -5.24634 0.136912 -0.715264 0.685311 218 39 65
0.54419 0.328194 -5.24098 0.0964621 -0.60416 0.791003 224 43 74
0.610125 0.321038 -5.28101 0.47468 -0.575826 0.66566 221 41 70
0.686819 0.328037 -5.24512 -0.818473 -0.329901 0.470391 221 40 68
0.700711 0.352098 -5.23035 0.125819 -0.0593559 0.990276 218 38 67
0.729934 0.351917 -5.23022 0.183711 0.0283532 0.982571 216 37 65
0.761782 0.348285 -5.2368 0.475758 0.477676 0.738566 213 36 61
0.761203 0.352266 -5.24344 0.193993 0.0769967 0.977977 214 36 61
0.794529 0.34783 -5.25994 0.518212 0.457818 0.722399 212 35 60
0.873212 0.368801 -5.26264 0.524156 0.423725 0.738727 207 33 55
0.967187 0.354287 -5.52565 0.158839 -0.780876 0.604155 200 32 49
1.0504 0.379605 -5.53854 0.523322 0.0814972 0.848229 194 30 45
1.08328 0.377479 -5.57255 0.110942 -0.796594 0.594247 194 30 45
1.12899 0.378125 -5.59471 0.493014 -0.477652 0.727177 194 30 44
1.20117 0.390873 -5.61602 0.35688 -0.565074 0.74386 188 29 41
1.22121 0.382832 -5.56712 0.531519 0.337556 0.776881 192 31 45
1.25675 0.400523 -5.60526 0.531501 -0.368702 0.762605 177 28 36
1.35406 0.387337 -5.67042 0.585765 0.0565709 0.808505 141 18 21
1.41158 0.41538 -5.66499 -0.0859585 0.203681 0.975256 172 25 34
1.45477 0.416458 -5.69559 0.474351 -0.448088 0.757765 186 34 46
1.59678 0.420219 -5.88485 0.523089 0.26762 0.80917 173 35 39
1.66869 0.40632 -5.98094 0.532071 0.226715 0.815783 155 64 50
1.66888 0.407105 -5.98653 0.556411 0.105773 0.824147 156 63 50
1.90889 0.447484 -6.06785 -0.780577 -0.347038 0.519869 129 70 55
1.94786 0.432607 -6.05807 -0.494686 -0.10471 0.862741 141 90 56
1.96912 0.462878 -6.06153 -0.392807 0.230795 0.890189 148 105 40
2.00728 0.468986 -6.03359 0.0150653 -0.64138 0.767076 189 132 45
2.04644 0.469516 -6.02854 -0.957687 0.166834 0.234526 207 146 51
2.0623 0.465819 -5.99454 -0.954651 0.190157 0.22909 214 155 56
2.10599 0.460723 -5.89746 -0.950841 -0.0182205 0.309142 226 184 99
2.13495 0.454822 -5.8065 -0.965596 -0.0184523 0.259393 227 194 120
2.13451 0.456331 -5.80575 -0.965018 -0.0216369 0.261288 227 195 122
2.14875 0.481839 -5.77155 -0.970344 -0.119424 0.210167 226 197 128
2.1489 0.483148 -5.77089 -0.965078 -0.10097 0.241723 226 197 128
2.1491 0.481579 -5.77088 -0.97073 -0.11921 0.208499 226 197 128
2.17453 0.477497 -5.69976 -0.952004 0.0796339 0.295544 226 198 127
2.1778 0.47314 -5.69278 -0.941294 0.0143058 0.337284 226 198 128
2.20348 0.476867 -5.6248 -0.951172 -0.0787413 0.298448 229 192 113
2.20727 0.473683 -5.61367 -0.9548 -0.175531 0.239885 229 193 115
2.20771 0.49555 -5.60794 -0.950767 -0.116782 0.287063 228 174 70
2.20165 0.473898 -5.62566 -0.96262 -0.104034 0.25008 228 195 119
2.23719 0.4721 -5.53543 -0.907423 -0.0885163 0.410789 228 180 86
2.24297 0.500712 -5.49034 -0.981076 -0.148634 0.124091 230 171 59
-1.06007 0.159189 -4.81202 -0.325872 -0.439349 0.837126 104 92 106
-1.02923 0.16809 -4.84457 -0.139461 -0.118996 0.983052 116 97 113
-1.00899 0.166914 -4.83392 -0.318833 -0.254124 0.913108 164 131 148
-0.960334 0.159865 -4.80965 0.0124601 0.438442 0.898673 225 172 186
-0.93323 0.160446 -4.79136 -0.4604 -0.595873 0.658002 231 174 187
-0.894545 0.165488 -4.76522 -0.626551 -0.342816 0.699936 237 175 189
-0.841127 0.167871 -4.77014 -0.0975794 0.0315793 0.994727 234 164 177
-0.71256 0.188129 -4.58717 -0.6688 -0.2102 0.713108 232 181 192
-0.687565 0.191305 -4.56714 -0.625946 -0.140148 0.767171 230 173 186
-0.637217 0.195958 -4.5556 0.0383779 -0.00551871 0.999248 212 149 163
-0.604195 0.195339 -4.54636 -0.570428 -0.117554 0.812892 221 159 173
-0.596025 0.197255 -4.53844 -0.590435 -0.10186 0.800632 224 162 177
-0.580151 0.203545 -4.53116 -0.513155 0.14334 0.846242 228 168 181
-0.556507 0.202184 -4.53559 0.162662 -0.139979 0.976702 236 176 189
-0.542926 0.207244 -4.52525 -0.124419 -0.00415424 0.992221 237 176 190
-0.518962 0.207424 -4.51332 -0.593396 -0.505687 0.626228 235 174 187
-0.49636 0.214556 -4.50526 -0.697991 -0.202412 0.686904 241 184 195
-0.436603 0.214615 -4.48061 -0.187556 -0.0251801 0.981931 246 193 204
-0.401577 0.235012 -4.48493 0.406401 0.218849 0.887098 245 195 205
-0.322911 0.244496 -4.48605 0.520145 -0.240239 0.819594 242 197 209
-0.298151 0.239119 -4.5209 -0.463471 -0.234638 0.854482 238 194 205
-0.278169 0.239922 -4.54433 -0.416795 -0.296766 0.859193 232 186 198
-0.242944 0.250908 -4.52688 -0.212644 -0.265112 0.940478 201 142 152
-0.222973 0.251939 -4.55758 0.600182 -0.263644 0.755164 220 159 170
-0.195713 0.251283 -4.57802 0.743262 -0.249564 0.620708 217 155 167
-0.162091 0.243918 -4.64214 0.767237 -0.140781 0.625722 203 142 156
0.00710647 0.232152 -5.39069 0.471331 -0.228752 0.851774 215 183 195
0.0458541 0.24815 -5.41497 -0.624356 0.160476 0.764478 233 208 219
0.0709707 0.260628 -5.37809 -0.704296 -0.485349 0.518076 222 189 204
0.0969512 0.240825 -5.3809 -0.46456 -0.585722 0.664164 215 128 155
0.103929 0.26689 -5.35446 -0.267469 -0.0794295 0.960287 244 237 244
0.131327 0.267933 -5.34771 0.188705 -0.0110888 0.981971 239 224 233
0.161548 0.270967 -5.36322 0.390556 0.237683 0.889366 220 170 186
0.160768 0.267955 -5.35895 0.348712 0.152643 0.924716 227 188 202
0.351759 0.277177 -5.44025 -0.0123427 -0.62086 0.783824 208 37 61
0.389932 0.27221 -5.45764 -0.176507 -0.666996 0.723852 216 40 67
0.440294 0.273284 -5.45207 -0.0717868 -0.821139 0.566195 220 39 66
0.477179 0.303806 -5.33116 -0.313768 -0.792496 0.522972 220 40 70
0.566788 0.311952 -5.30686 0.55782 -0.46835 0.68519 223 41 70
0.598127 0.311893 -5.30937 0.596032 -0.388901 0.702497 222 41 71
1.03452 0.325426 -5.60194 0.339261 -0.126821 0.932104 201 32 51
1.05071 0.353316 -5.59492 0.0492387 -0.174916 0.983351 196 30 45
1.08745 0.356491 -5.57299 0.0943298 -0.799076 0.593783 198 32 48
1.1553 0.360153 -5.60959 0.490793 -0.473808 0.731183 195 31 46
1.21961 0.367964 -5.57243 0.527601 0.350626 0.773756 195 32 48
1.31143 0.374079 -5.61597 0.422656 -0.165299 0.891088 165 24 31
1.30373 0.362171 -5.62165 0.316922 -0.0816448 0.944931 168 25 33
1.33256 0.353804 -5.6428 0.234864 0.13964 0.961946 134 17 20
1.36126 0.374496 -5.65567 0.464756 -0.242381 0.851618 130 15 17
1.33888 0.362776 -5.62475 0.443666 0.485091 0.753556 130 15 17
1.42736 0.380184 -5.66045 0.27526 -0.0620592 0.959365 177 29 39
1.88672 0.404461 -6.09278 -0.767285 -0.302038 0.565727 122 64 58
1.91865 0.403677 -6.05919 -0.823324 -0.269669 0.499416 137 79 64
1.97425 0.420705 -6.033 -0.5733 -0.051438 0.817729 176 133 51
1.97616 0.417456 -6.05046 -0.486411 -0.243061 0.839241 171 128 53
2.02162 0.40872 -6.04958 -0.628608 -0.0804221 0.773553 204 162 50
2.02927 0.428917 -6.0042 -0.813063 -0.186284 0.551568 208 165 50
2.05531 0.413977 -6.00062 -0.961841 0.145986 0.231408 213 174 53
2.0717 0.438003 -5.95742 -0.957914 0.195337 0.210342 220 162 51
2.12077 0.43583 -5.85792 -0.965039 -0.098358 0.242951 227 173 71
2.12005 0.433224 -5.84932 -0.955897 0.164146 0.243551 227 173 69
2.1427 0.431801 -5.77046 -0.961741 0.012649 0.273667 227 182 92
2.15815 0.457363 -5.73689 -0.924208 0.133895 0.357648 226 198 128
2.16176 0.451704 -5.72856 -0.92105 0.0513866 0.38604 226 198 128
2.16779 0.431434 -5.69136 -0.936574 -0.0208943 0.349846 227 192 114
2.18694 0.453012 -5.66424 -0.929787 0.0782807 0.359678 226 199 131
2.22365 0.449204 -5.56906 -0.904908 -0.0856131 0.416907 227 199 130
2.25111 0.451723 -5.49358 -0.886684 0.140272 0.440585 227 192 113
2.25272 0.472368 -5.43752 -0.98766 -0.102752 0.118196 223 168 67
-1.02289 0.139117 -4.84834 -0.673594 -0.0395013 0.738046 161 130 147
-0.987157 0.14685 -4.82421 -0.506256 0.0712174 0.859437 214 167 181
-0.905898 0.154494 -4.7775 -0.63943 0.0472807 0.767394 237 177 189
-0.860494 0.162902 -4.76184 0.657005 -0.343336 0.671167 238 172 183
-0.807361 0.165646 -4.75643 -0.686215 -0.195507 0.700633 241 191 201
-0.737266 0.178264 -4.62843 -0.698263 -0.168332 0.695768 229 174 188
-0.707635 0.167751 -4.58742 -0.616895 -0.182895 0.7655 227 173 185
-0.649608 0.174539 -4.5513 -0.238862 -0.550065 0.800233 226 168 180
-0.659248 0.178372 -4.5526 -0.174762 -0.563273 0.807578 220 159 172
-0.624157 0.17428 -4.55717 -0.115555 -0.17345 0.97804 232 173 185
-0.587426 0.175581 -4.54253 -0.573129 -0.515073 0.637356 238 183 195
-0.545546 0.182068 -4.53638 0.154274 -0.368257 0.916835 243 186 197
-0.522286 0.182751 -4.51548 -0.537814 -0.573845 0.617623 241 182 193
-0.471283 0.191916 -4.51417 -0.264023 -0.554024 0.789524 247 194 204
-0.448563 0.193145 -4.48378 -0.184017 -0.558161 0.80907 247 196 206
-0.423022 0.194432 -4.47792 -0.153234 -0.117194 0.981216 247 196 207
-0.411551 0.214079 -4.47899 -0.0358179 -0.154362 0.987365 246 197 207
-0.388162 0.213996 -4.48492 0.719272 0.405144 0.564364 247 201 212
-0.334879 0.218136 -4.49336 0.346809 -0.471571 0.810768 244 200 211
-0.284823 0.215556 -4.53586 0.204348 -0.170709 0.963899 235 190 202
-0.261854 0.215959 -4.54446 -0.444341 -0.291944 0.846953 210 155 168
-0.239982 0.218285 -4.55705 0.638179 -0.214382 0.739438 193 132 144
-0.209606 0.228315 -4.57316 0.429901 -0.210176 0.878073 231 170 182
-0.186255 0.228486 -4.59281 0.745838 -0.167981 0.6446 218 156 166
-0.162463 0.224888 -4.64085 0.76671 -0.14081 0.626361 207 146 159
-0.162409 0.225086 -4.64129 0.766316 -0.143004 0.626346 207 146 159
-0.162409 0.225086 -4.64129 0.766316 -0.143004 0.626346 207 146 159
-0.124614 0.223817 -4.72616 -0.210037 -0.784818 0.583048 195 140 156
0.0978199 0.238353 -5.38344 -0.477598 -0.579099 0.660715 213 116 144
0.108743 0.214454 -5.36415 -0.0875733 -0.41312 0.906456 208 50 84
0.11822 0.241163 -5.34898 0.233712 0.0697823 0.969799 237 205 219
0.146937 0.241181 -5.35621 0.33146 0.115295 0.936398 240 230 239
0.174317 0.245096 -5.35979 0.315207 -0.128688 0.940257 240 227 235
0.204652 0.245101 -5.37317 0.368884 0.0859276 0.925495 234 206 217
0.227749 0.242531 -5.39094 0.480672 0.555844 0.678227 226 182 197
0.389277 0.243234 -5.4566 -0.0440806 -0.643142 0.764477 152 20 32
0.421618 0.242689 -5.4567 -0.119936 -0.652167 0.748528 161 23 36
0.494346 0.261339 -5.48404 0.309288 -0.0194113 0.95077 216 38 64
0.524284 0.26131 -5.48615 0.574399 -0.251824 0.778878 219 39 68
0.589485 0.270084 -5.50494 0.145466 -0.214459 0.96584 223 41 69
0.661257 0.283891 -5.48652 0.371351 -0.6754 0.637129 219 39 66
0.770252 0.275053 -5.54453 0.487566 -0.370721 0.790471 213 36 60
0.83144 0.277931 -5.5903 0.578379 -0.376908 0.723476 207 35 56
0.953693 0.301792 -5.58568 0.488425 -0.509965 0.70808 197 30 47
1.06785 0.325543 -5.6067 0.363656 -0.0739267 0.928595 202 31 51
1.11497 0.329016 -5.60365 0.015661 -0.0580717 0.99819 201 32 51
1.1807 0.31455 -5.58947 0.278778 0.284753 0.917169 197 31 50
1.21007 0.335145 -5.59017 0.415958 0.0739309 0.906373 194 30 47
1.24751 0.334744 -5.6032 0.194261 0.147492 0.969798 180 27 40
1.28687 0.334843 -5.61863 -0.148486 0.384202 0.91123 146 19 23
1.29686 0.333829 -5.61827 -0.210958 0.554778 0.804809 131 15 16
1.32023 0.334834 -5.61334 0.112045 0.56653 0.816388 106 10 8
1.40687 0.347885 -5.64775 0.153662 0.000292877 0.988123 119 15 16
1.49022 0.333877 -5.70153 0.508328 -0.348813 0.787358 158 28 30
1.88563 0.372064 -6.17137 -0.603755 -0.650617 0.460627 122 68 64
1.91505 0.370217 -6.13169 0.0938444 -0.27804 0.955974 137 80 76
1.94639 0.368721 -6.10028 -0.626832 -0.110164 0.771327 159 101 85
1.96578 0.390864 -6.07737 -0.516358 -0.241964 0.821479 164 112 74
1.99574 0.385476 -6.05886 -0.649354 -0.13843 0.747781 199 157 59
1.9916 0.37264 -6.0619 -0.903012 -0.252571 0.34753 201 159 62
2.00799 0.371958 -6.01039 -0.956347 -0.212002 0.201136 210 170 52
2.01022 0.387862 -5.99013 -0.955094 -0.218771 0.199836 210 169 50
2.08278 0.384858 -5.99345 -0.930697 -0.324585 0.168664 222 186 56
2.08172 0.386604 -5.99074 -0.940145 -0.299192 0.163128 222 186 56
2.08202 0.410073 -5.92278 -0.970573 0.120488 0.208494 223 180 55
2.10276 0.409571 -5.88572 -0.954919 0.15272 0.25457 227 180 56
2.12698 0.406534 -5.80861 -0.968369 0.166716 0.185657 229 179 58
2.13394 0.409241 -5.80794 -0.97779 -0.128215 0.165794 229 177 58
2.15286 0.406251 -5.72467 -0.933852 0.134664 0.33134 229 177 70
2.1725 0.427204 -5.69275 -0.940201 0.12593 0.316487 227 189 108
2.17992 0.408111 -5.65584 -0.947362 0.0268431 0.319036 227 178 81
2.19322 0.42878 -5.61383 -0.97559 -0.0454024 0.214854 228 196 124
2.22744 0.42727 -5.502 -0.990209 -0.0514636 0.129758 226 197 127
-1.07038 0.119402 -4.86258 -0.595571 -0.0174575 0.803113 113 101 117
-1.05611 0.100184 -4.87695 -0.671881 0.0140379 0.740526 115 96 112
-1.03545 0.121441 -4.86008 -0.66373 0.0602635 0.74554 148 123 141
-1.00617 0.111867 -4.86013 -0.626813 -0.297899 0.719974 222 177 192
-0.963044 0.128153 -4.77878 -0.371193 -0.608784 0.70114 231 180 193
-0.892422 0.129791 -4.75107 0.343867 -0.589955 0.730554 239 176 188
-0.857073 0.124772 -4.76985 0.187503 -0.0430828 0.981319 238 168 180
-0.815995 0.132421 -4.77486 -0.538095 -0.398053 0.742972 241 181 191
-0.760635 0.151194 -4.67531 -0.693091 -0.180412 0.697909 230 177 190
-0.75821 0.151177 -4.66604 -0.682483 -0.226088 0.695055 231 177 190
-0.75821 0.151177 -4.66604 -0.682483 -0.226088 0.695055 231 177 190
-0.679439 0.154997 -4.56661 -0.680988 0.101409 0.725239 214 153 167
-0.636391 0.152659 -4.56037 0.138452 -0.320311 0.93714 239 182 195
-0.590288 0.163749 -4.53713 -0.585376 -0.494489 0.642508 238 183 194
-0.559887 0.162357 -4.52811 -0.537385 -0.564408 0.626626 242 187 199
-0.53568 0.162603 -4.52477 0.0644967 -0.564336 0.823022 244 188 199
-0.487649 0.184709 -4.49452 -0.397159 -0.68096 0.615271 242 185 195
-0.47239 0.173758 -4.51706 -0.390189 -0.513419 0.764299 247 194 205
-0.434696 0.17343 -4.48256 -0.510171 -0.329607 0.794409 247 196 206
-0.386383 0.175886 -4.48196 0.498563 0.149447 0.853874 248 203 213
-0.373005 0.19505 -4.51467 -0.627364 -0.395202 0.670991 247 201 212
-0.348173 0.198032 -4.50399 0.479375 -0.286846 0.829409 246 202 212
-0.322628 0.199905 -4.50571 0.50212 -0.365667 0.783685 244 203 214
-0.296886 0.196362 -4.53039 -0.157833 -0.43382 0.887067 239 195 207
-0.274051 0.196098 -4.53742 0.180657 -0.234108 0.955278 230 183 195
-0.24524 0.191499 -4.54366 -0.544365 -0.350754 0.761996 189 129 139
-0.220891 0.189706 -4.55143 -0.00442323 -0.316148 0.9487 227 169 179
-0.19941 0.190005 -4.57602 0.257588 -0.209401 0.943292 231 171 183
-0.179743 0.190414 -4.61645 0.722807 -0.301302 0.621906 220 156 169
-0.163378 0.190627 -4.64527 0.693972 -0.363484 0.621516 214 152 165
-0.12948 0.206265 -4.72839 0.278333 -0.75315 0.596066 200 145 160
0.00294255 0.195239 -5.38236 0.563855 -0.042334 0.824788 203 150 167
0.0254579 0.200218 -5.39653 0.603131 0.454292 0.65563 206 105 129
0.122318 0.18843 -5.36864 0.142948 -0.374336 0.916209 213 38 66
0.133367 0.214803 -5.34985 0.304659 0.101339 0.947055 211 91 123
0.163478 0.214543 -5.35662 0.318714 0.133429 0.938413 231 175 195
0.190966 0.216679 -5.36195 0.394612 0.128412 0.909831 237 219 231
0.239731 0.214607 -5.38821 0.503773 0.170711 0.8468 236 222 233
0.275385 0.216334 -5.40542 0.394846 0.184539 0.900023 237 217 228
0.280813 0.218538 -5.40549 0.366219 0.197327 0.909365 237 213 225
0.308576 0.216231 -5.42092 0.370071 0.376373 0.849347 231 197 209
0.309827 0.218193 -5.42167 0.398542 0.409794 0.820508 229 191 204
0.406323 0.214888 -5.43861 0.29426 0.204858 0.933512 198 103 126
0.436307 0.215566 -5.44511 0.210778 0.00710031 0.977508 189 91 112
0.452022 0.242711 -5.4643 0.330154 -0.487783 0.808125 166 24 38
0.533457 0.246548 -5.49076 0.282431 -0.14735 0.947903 198 33 55
0.56886 0.241656 -5.48977 0.239363 -0.190215 0.952115 188 30 50
0.629826 0.247495 -5.49383 0.562211 -0.334786 0.7562 208 37 60
0.694541 0.254772 -5.51006 0.637956 -0.257531 0.725734 217 39 62
0.880739 0.270863 -5.5776 0.311551 -0.70238 0.639999 204 32 49
0.9605 0.267512 -5.55462 0.277049 -0.48561 0.829112 200 31 50
0.996898 0.26749 -5.56181 -0.00334378 -0.629869 0.776694 199 30 50
1.13136 0.302137 -5.59822 -0.450728 -0.315123 0.83519 203 32 51
1.16549 0.287739 -5.59481 -0.384901 0.180334 0.905169 199 32 50
1.24995 0.304594 -5.59102 -0.415771 0.784478 0.46014 137 15 18
1.26562 0.307213 -5.50277 -0.0493833 0.846595 0.529941 98 9 6
1.2663 0.307223 -5.50432 -0.0492452 0.846571 0.529992 99 9 6
1.42827 0.316542 -5.66427 0.469771 0.26478 0.842144 123 17 19
1.5998 0.321806 -5.87434 -0.173882 -0.242419 0.954462 162 40 36
1.96347 0.344381 -6.16512 -0.711163 -0.120591 0.692608 167 111 92
1.97136 0.354899 -6.07599 -0.725148 -0.433109 0.535329 191 142 77
1.99436 0.355831 -6.06626 -0.855027 -0.312845 0.41359 206 165 59
2.01481 0.3429 -6.01577 -0.957629 -0.205894 0.201381 214 175 52
2.05381 0.345556 -6.03633 -0.978503 -0.0683465 0.194581 216 178 52
2.06939 0.356022 -5.9123 -0.935053 0.281904 0.214958 223 188 54
2.09525 0.359486 -5.88716 -0.929682 0.300806 0.212621 227 192 56
2.11156 0.382958 -5.84804 -0.974952 0.12353 0.184955 229 193 57
2.13389 0.379147 -5.77116 -0.974186 0.138925 0.177937 230 195 61
2.16233 0.381711 -5.68684 -0.915022 0.197428 0.35179 229 194 91
2.19658 0.376309 -5.61612 -0.934202 -0.119653 0.336079 228 199 126
2.20665 0.403269 -5.57534 -0.977669 -0.158436 0.138065 222 180 95
2.20728 0.403638 -5.51892 -0.990488 -0.0126571 0.137013 222 186 109
2.23088 0.398844 -5.44312 -0.986219 -0.10992 0.123651 224 191 86
-1.05643 0.0858501 -4.9005 -0.620497 -0.294454 0.726829 128 102 118
-0.961114 0.0953944 -4.77734 -0.587722 -0.393869 0.706718 237 185 198
-0.931655 0.102404 -4.78983 0.352812 -0.529857 0.771217 237 179 191
-0.901343 0.102619 -4.78085 0.426217 -0.282867 0.859259 243 184 194
-0.871345 0.102831 -4.77197 0.175897 0.180639 0.967693 242 180 190
-0.846063 0.102831 -4.77662 0.113512 0.0417533 0.992659 243 177 188
-0.822892 0.102748 -4.78763 -0.395969 -0.492548 0.774987 241 175 185
-0.708068 0.126839 -4.60624 -0.653706 -0.326876 0.682511 228 175 189
-0.674528 0.124037 -4.58543 -0.572988 -0.413457 0.707628 224 165 178
-0.674485 0.124038 -4.58526 -0.574255 -0.41159 0.70769 224 165 178
-0.674485 0.124038 -4.58526 -0.574255 -0.41159 0.70769 224 165 178
-0.64991 0.132397 -4.55915 -0.0191832 -0.215459 0.976324 233 174 187
-0.625999 0.133539 -4.53495 -0.331191 -0.66494 0.669453 234 178 192
-0.594469 0.139456 -4.5239 -0.519653 -0.228679 0.823205 240 190 202
-0.565079 0.145424 -4.50591 -0.579764 -0.503841 0.640326 241 189 201
-0.499128 0.143385 -4.52147 -0.654738 -0.397042 0.643177 245 189 200
-0.488778 0.151204 -4.51012 -0.53855 -0.573753 0.617066 245 189 200
-0.379271 0.175312 -4.46054 -0.526874 -0.556411 0.642503 246 197 208
-0.363421 0.175769 -4.4974 0.448793 0.128734 0.884315 247 202 213
-0.311933 0.179545 -4.51782 0.416295 -0.409514 0.811786 245 204 214
-0.323494 0.160243 -4.51728 0.599007 -0.266409 0.755127 246 207 216
-0.287186 0.176189 -4.54408 -0.0190814 -0.381083 0.924344 239 196 208
-0.307815 0.178855 -4.51546 0.349435 -0.461319 0.815525 244 204 214
-0.232825 0.169203 -4.553 0.0542852 -0.409778 0.910568 208 148 160
-0.148713 0.183431 -4.65302 0.725792 -0.28082 0.627986 209 151 165
-0.10059 0.177073 -4.76223 -0.819977 -0.103576 0.562947 214 160 171
0.0106839 0.169251 -5.32097 0.55013 0.595199 0.585744 196 77 100
0.0100357 0.168583 -5.31665 0.406154 0.723678 0.557969 197 77 101
0.0105114 0.164024 -5.31427 0.591559 0.509315 0.625025 196 72 95
0.123279 0.161079 -5.47025 0.527172 -0.576675 0.624128 208 35 60
0.147836 0.188803 -5.35851 0.262732 -0.0815222 0.961419 212 41 73
0.176257 0.188902 -5.36067 0.225643 -0.181545 0.957145 208 54 90
0.206347 0.188831 -5.36514 0.363099 0.0374157 0.930999 214 106 138
0.237156 0.188793 -5.37554 0.421692 0.0566967 0.904965 222 162 185
0.268572 0.188249 -5.3849 0.446235 0.262534 0.855541 234 203 219
0.29812 0.18794 -5.39875 0.436846 0.316962 0.841844 235 216 229
0.327708 0.187858 -5.41423 0.33527 0.300298 0.892981 236 219 230
0.326547 0.187216 -5.41239 0.322838 0.3596 0.875479 236 219 230
0.357978 0.187928 -5.42863 0.224229 -0.0367823 0.973842 235 217 227
0.391456 0.188209 -5.43299 0.0948357 -0.398151 0.912405 235 213 225
0.421732 0.188248 -5.44342 0.207388 0.0438711 0.977274 235 210 221
0.452521 0.188246 -5.45106 0.245214 0.0958835 0.964716 235 208 220
0.499413 0.21532 -5.48572 0.213839 -0.551506 0.806296 168 78 96
0.531684 0.215288 -5.49004 0.211328 -0.550749 0.807475 169 77 94
0.531931 0.214714 -5.48653 0.139636 -0.583813 0.79979 171 81 98
0.563874 0.215191 -5.49135 0.21884 -0.544519 0.809696 173 78 95
0.595694 0.216144 -5.49167 0.150221 -0.576358 0.803271 174 74 92
0.627213 0.215986 -5.48314 0.0791515 -0.602698 0.794034 158 47 64
0.658775 0.216693 -5.48327 0.0984158 -0.594229 0.798252 147 26 38
0.690755 0.219548 -5.48965 0.250255 -0.516758 0.818739 177 28 42
0.724457 0.222635 -5.50239 0.563931 -0.419244 0.711489 212 36 61
0.742007 0.236118 -5.53592 0.647258 -0.197335 0.736286 219 38 66
